0.158102 0.495991 -0.220535
0.177064 0.506365 -0.243037
0.105377 0.505214 -0.245654
0.113437 0.456283 -0.233169
0.054835 0.513233 -0.253720
0.261085 0.476266 -0.221545
-0.256741 0.490255 -0.246818
0.264438 0.481359 -0.232991
-0.115408 0.474376 -0.224575
0.263033 0.498611 -0.216448
0.240426 0.514312 -0.236119
-0.266357 0.525157 -0.235295
-0.263710 0.519430 -0.242279
-0.207154 0.509001 -0.243942
-0.092934 0.474447 -0.243173
0.232770 0.496563 -0.240708
0.223586 0.512008 -0.242182
-0.236702 0.504694 -0.246138
0.119810 0.472731 -0.226366
0.044272 0.519219 -0.239930
-0.138953 0.466413 -0.236701
0.103351 0.503534 -0.240896
-0.124671 0.510641 -0.247075
0.180103 0.507331 -0.223542
0.044267 0.496556 -0.247844
0.062007 0.514958 -0.221502
0.248160 0.515197 -0.239341
0.240106 0.510782 -0.235099
-0.261196 0.486002 -0.230836
0.239199 0.509478 -0.234431
-0.210735 0.462782 -0.232349
0.147935 0.464895 -0.237192
0.106803 0.463226 -0.229312
-0.240056 0.475917 -0.233832
0.232754 0.510493 -0.240687
-0.232911 0.511209 -0.242089
-0.017303 0.529612 -0.246337
0.121429 0.515444 -0.247986
0.280345 0.495871 -0.222039
0.128604 0.516518 -0.251369
0.085390 0.517692 -0.222980
-0.132846 0.487774 -0.221894
-0.183960 0.529686 -0.250500
-0.255181 0.525147 -0.246658
-0.227301 0.481484 -0.242632
0.009349 0.516598 -0.243720
0.266131 0.482044 -0.234700
-0.243326 0.523098 -0.243331
0.239570 0.491831 -0.241800
0.261586 0.478731 -0.231672
-0.107436 0.524909 -0.246330
0.271392 0.509179 -0.227805
-0.242423 0.474032 -0.231601
0.266753 0.497282 -0.235652
-0.122317 0.530500 -0.251410
-0.018422 0.496682 -0.246297
0.238031 0.510979 -0.219114
-0.251598 0.530670 -0.247921
-0.262345 0.503930 -0.242870
-0.245031 0.500537 -0.247194
0.090213 0.478422 -0.224146
-0.264159 0.491770 -0.239251
-0.188981 0.528213 -0.222181
0.107805 0.455505 -0.231565
0.270476 0.480260 -0.222695
-0.223352 0.465428 -0.223239
0.122826 0.497379 -0.222631
-0.199522 0.462526 -0.226462
0.098000 0.521995 -0.245067
-0.255872 0.481792 -0.227249
0.128529 0.509616 -0.239257
0.258159 0.487526 -0.238534
0.274016 0.485001 -0.233550
0.280827 0.507943 -0.223396
0.262662 0.475072 -0.228620
0.227387 0.486251 -0.240542
0.276639 0.512712 -0.227809
-0.050297 0.512726 -0.247822
0.165891 0.511179 -0.248114
-0.265325 0.523665 -0.241271
-0.267474 0.501958 -0.228524
0.108116 0.507850 -0.228869
0.156501 0.499020 -0.236556
-0.159430 0.493267 -0.222052
0.213178 0.498147 -0.241560
0.106924 0.513412 -0.224060
0.251689 0.510227 -0.218668
0.269070 0.477129 -0.228952
0.226322 0.511815 -0.244378
-0.159979 0.493030 -0.243684
0.272854 0.494645 -0.237969
-0.207711 0.485532 -0.243701
-0.013774 0.530843 -0.225720
0.225947 0.509237 -0.242707
-0.239079 0.520027 -0.242332
0.016656 0.506595 -0.250812
-0.183340 0.496292 -0.242245
0.217615 0.480210 -0.217463
0.182611 0.510909 -0.242560
-0.242924 0.497086 -0.246739
0.252096 0.471132 -0.223127
0.223625 0.464688 -0.222836
-0.188675 0.469364 -0.224215
0.135264 0.506988 -0.247859
0.228934 0.514663 -0.245931
0.110649 0.481197 -0.221243
0.228634 0.514507 -0.237059
-0.055463 0.510949 -0.222309
-0.259257 0.511496 -0.246016
-0.252267 0.509774 -0.247053
0.115230 0.502815 -0.222852
0.234493 0.510050 -0.238637
0.082004 0.502234 -0.223600
-0.244166 0.487400 -0.246821
0.273848 0.513229 -0.225419
0.067709 0.520064 -0.240224
0.011195 0.474917 -0.246091
0.112561 0.501898 -0.247443
0.213285 0.510393 -0.239454
0.244456 0.514638 -0.238146
0.071614 0.517728 -0.236474
-0.038544 0.523265 -0.244620
0.244370 0.511296 -0.235602
0.040478 0.461205 -0.231315
0.260222 0.501241 -0.239653
-0.224740 0.505556 -0.245927
0.239610 0.511899 -0.234730
0.251106 0.473805 -0.227557
-0.263949 0.527403 -0.245081
0.097652 0.521112 -0.246775
0.035876 0.524378 -0.221145
0.238447 0.507364 -0.235188
0.254874 0.518168 -0.240562
0.263753 0.499599 -0.238002
-0.267445 0.508269 -0.229664
0.073716 0.522014 -0.220030
-0.214781 0.482547 -0.222854
0.029833 0.525679 -0.247438
-0.260132 0.521058 -0.246869
0.278360 0.500281 -0.235289
-0.253555 0.499979 -0.247059
0.109776 0.510831 -0.239436
0.061933 0.524723 -0.247302
0.115595 0.518407 -0.242686
0.089644 0.523938 -0.246765
0.103542 0.476637 -0.224077
0.087059 0.498743 -0.222807
0.099949 0.517261 -0.248064
0.154951 0.472192 -0.243069
0.238213 0.474642 -0.233100
0.281799 0.503536 -0.223597
-0.121476 0.491367 -0.221650
-0.064658 0.460616 -0.233123
0.238105 0.499430 -0.243221
0.235912 0.509417 -0.240347
0.258388 0.482597 -0.237196
0.144459 0.507456 -0.245052
-0.156768 0.480666 -0.223191
-0.249260 0.508736 -0.246829
-0.233346 0.468791 -0.226377
-0.263736 0.511152 -0.240527
0.040364 0.457772 -0.233979
-0.030870 0.526876 -0.229236
-0.157577 0.530209 -0.229825
0.245571 0.506273 -0.238215
-0.241701 0.507719 -0.246419
0.221735 0.502650 -0.218039
-0.153327 0.524092 -0.222967
-0.031189 0.467301 -0.238187
0.237346 0.508966 -0.237390
0.228286 0.509506 -0.237557
-0.248514 0.489386 -0.220046
0.228484 0.507582 -0.235963
0.260564 0.493290 -0.238394
0.249237 0.488211 -0.240015
0.005755 0.525167 -0.236721
0.254551 0.480969 -0.219416
0.237267 0.518504 -0.235548
0.241000 0.507582 -0.235312
-0.265668 0.511300 -0.236390
-0.220056 0.473744 -0.242424
0.118892 0.514287 -0.245361
-0.165135 0.530601 -0.248391
-0.225178 0.497819 -0.223160
-0.108206 0.531034 -0.247994
0.268628 0.499055 -0.237930
0.086850 0.512133 -0.243864
-0.234608 0.484040 -0.217267
-0.254659 0.474399 -0.232002
-0.261436 0.491976 -0.241806
-0.208775 0.472868 -0.243063
0.245056 0.492548 -0.241620
-0.259690 0.491326 -0.245685
-0.172555 0.517386 -0.240519
-0.221377 0.511306 -0.224245
0.096507 0.455398 -0.232615
0.180838 0.496406 -0.239023
0.157067 0.508460 -0.240222
0.072629 0.474021 -0.245988
-0.243915 0.515502 -0.245227
0.276673 0.502422 -0.237246
-0.235927 0.502664 -0.246486
0.265644 0.514704 -0.240796
0.276760 0.504596 -0.235238
0.155539 0.512873 -0.252540
-0.164842 0.483974 -0.244423
0.233699 0.506541 -0.243943
0.068707 0.330474 -0.226709
-0.123503 0.282637 -0.242029
-0.262225 0.319383 -0.213519
0.285480 0.324748 -0.216368
-0.211238 0.285779 -0.236746
0.263597 0.309891 -0.242573
-0.247104 0.313483 -0.230335
0.274543 0.288371 -0.226504
-0.251231 0.281484 -0.244243
-0.097405 0.353520 -0.211939
0.301109 0.361756 -0.217247
0.052262 0.284502 -0.217749
0.264847 0.314282 -0.241716
-0.206747 0.261043 -0.240132
0.016698 0.289245 -0.230065
0.299588 0.329330 -0.235140
-0.240159 0.286846 -0.217283
0.113911 0.300868 -0.242467
-0.067911 0.311973 -0.210759
0.164453 0.289028 -0.247357
-0.231417 0.277591 -0.224129
0.289773 0.328620 -0.232520
-0.251393 0.350394 -0.216184
-0.244654 0.296545 -0.239516
-0.245822 0.276024 -0.238725
-0.233225 0.282672 -0.211442
0.161616 0.317200 -0.209754
0.293921 0.338110 -0.214842
0.260517 0.307085 -0.220202
-0.258341 0.313743 -0.232308
0.023287 0.300305 -0.237610
0.073055 0.348416 -0.215351
0.051149 0.297262 -0.243735
0.287793 0.325437 -0.235913
-0.238631 0.265946 -0.247428
0.279695 0.344926 -0.221854
-0.201226 0.344902 -0.219295
0.138444 0.318363 -0.233323
-0.090138 0.319594 -0.233004
-0.260317 0.339414 -0.209087
0.082039 0.353394 -0.215047
-0.150955 0.275961 -0.242661
0.254380 0.311637 -0.245708
-0.257710 0.340616 -0.222640
-0.214039 0.280270 -0.235807
0.262020 0.300457 -0.238326
-0.255478 0.301385 -0.230465
-0.243867 0.280845 -0.241733
0.208499 0.310309 -0.230193
0.155987 0.291228 -0.231616
0.112350 0.297833 -0.247510
0.207177 0.300903 -0.243492
0.301795 0.344319 -0.227138
0.277842 0.322007 -0.240691
0.241259 0.300877 -0.236344
-0.156948 0.331768 -0.212176
-0.252883 0.296465 -0.213057
-0.246269 0.299919 -0.206849
-0.205459 0.289849 -0.230795
-0.238454 0.300121 -0.232420
0.287364 0.323107 -0.237814
0.023748 0.295601 -0.237148
0.275806 0.321234 -0.222267
0.308670 0.357279 -0.226651
0.273756 0.328529 -0.226199
0.238547 0.296596 -0.246310
-0.248714 0.273740 -0.242063
0.007887 0.274762 -0.247065
-0.214651 0.300687 -0.229358
0.037388 0.299054 -0.232091
-0.231571 0.257775 -0.240939
0.276985 0.324089 -0.240947
-0.247298 0.286550 -0.232869
-0.252679 0.305214 -0.234947
0.005143 0.295950 -0.214274
0.270875 0.287955 -0.224702
-0.223287 0.282051 -0.233486
0.207092 0.300979 -0.239320
0.190680 0.295087 -0.245886
-0.231221 0.347491 -0.202905
0.187651 0.304515 -0.212479
-0.001730 0.349794 -0.215110
-0.251134 0.331383 -0.224388
-0.255751 0.301884 -0.217158
-0.254791 0.314328 -0.231123
0.177898 0.357015 -0.211085
0.272478 0.319372 -0.231736
-0.253078 0.294503 -0.240229
-0.119467 0.283588 -0.220148
0.279632 0.321191 -0.240171
-0.121417 0.282128 -0.228620
-0.237438 0.284908 -0.238793
-0.248443 0.323131 -0.209652
0.081765 0.330187 -0.212127
0.000337 0.297160 -0.239264
-0.135077 0.324442 -0.210824
-0.224753 0.268179 -0.242681
-0.223767 0.259646 -0.243956
0.261858 0.360031 -0.214247
-0.237589 0.323518 -0.224942
-0.106260 0.273455 -0.244336
0.245289 0.350922 -0.210947
0.172769 0.299577 -0.219431
0.255086 0.297362 -0.232937
-0.260125 0.319517 -0.225215
-0.012530 0.352441 -0.215232
-0.228748 0.282391 -0.217108
-0.239070 0.272814 -0.237931
-0.206638 0.349595 -0.209714
0.260331 0.315651 -0.244124
-0.009026 0.341847 -0.222989
-0.129732 0.285463 -0.213611
0.171630 0.326708 -0.230183
0.042898 0.285734 -0.247422
0.301764 0.351949 -0.220563
0.031130 0.331349 -0.213585
-0.233605 0.278943 -0.237019
-0.245864 0.307767 -0.236622
-0.081508 0.285979 -0.243505
-0.259775 0.301400 -0.236339
0.306345 0.336927 -0.230891
0.038902 0.320075 -0.234008
-0.081736 0.328400 -0.227876
-0.235164 0.312924 -0.229042
0.210964 0.325255 -0.207461
-0.024166 0.297736 -0.239940
-0.255114 0.302081 -0.222379
0.038859 0.354122 -0.213207
-0.234322 0.292124 -0.227470
0.278848 0.309723 -0.235681
0.240613 0.300839 -0.237842
0.148654 0.336038 -0.225132
0.024104 0.295087 -0.242070
-0.259423 0.329896 -0.222144
0.209776 0.303110 -0.228619
-0.008522 0.322519 -0.230678
0.115858 0.300784 -0.242897
0.238607 0.303111 -0.244361
0.280356 0.321154 -0.237053
0.300189 0.328845 -0.233931
0.291431 0.326578 -0.238105
0.290913 0.328667 -0.223713
-0.136529 0.291343 -0.235640
-0.240853 0.288311 -0.227071
-0.225222 0.341167 -0.211276
-0.243871 0.265488 -0.246371
0.285609 0.318644 -0.231954
0.265888 0.305405 -0.241373
0.256002 0.313199 -0.234243
0.117115 0.293109 -0.229791
-0.192169 0.298901 -0.208111
0.270408 0.315698 -0.215688
-0.241053 0.319292 -0.228212
-0.197678 0.277144 -0.225071
-0.253846 0.313639 -0.208307
-0.243573 0.285834 -0.210621
0.296266 0.328075 -0.235021
0.111638 0.295680 -0.248941
-0.233853 0.279928 -0.228891
0.124075 0.298744 -0.239910
-0.242030 0.283367 -0.240657
-0.070813 0.310076 -0.234302
0.226609 0.305399 -0.244624
0.055707 0.315833 -0.234460
0.296399 0.335236 -0.231669
-0.260853 0.330428 -0.211753
0.051234 0.307796 -0.211840
0.303184 0.340458 -0.232130
-0.247840 0.298183 -0.207449
-0.243169 0.286051 -0.230675
0.297540 0.337414 -0.223545
-0.237857 0.265694 -0.240781
0.020593 0.286461 -0.217497
-0.171993 0.288504 -0.237065
0.231867 0.301614 -0.216558
0.311267 0.353101 -0.224984
-0.251829 0.322743 -0.228436
0.262539 0.314788 -0.227222
-0.090487 0.292024 -0.239263
-0.245976 0.279827 -0.245852
-0.255463 0.290703 -0.237809
0.260643 0.324076 -0.227993
0.294811 0.328945 -0.231971
-0.188419 0.343302 -0.213227
-0.250914 0.345211 -0.211661
0.272916 0.322723 -0.241683
0.100783 0.340854 -0.221648
-0.227791 0.251582 -0.244391
0.227607 0.339640 -0.208778
0.092642 0.284262 -0.249606
-0.048247 0.332418 -0.212562
0.131244 0.305701 -0.240560
-0.216596 0.267301 -0.240071
0.071767 0.296086 -0.214555
-0.205214 0.313279 -0.230074
-0.063098 0.354163 -0.213709
0.066614 0.290441 -0.231634
0.243612 0.302556 -0.240386
-0.242180 0.342980 -0.220170
-0.260759 0.306783 -0.207313
-0.233803 0.272604 -0.245686
0.259240 0.311639 -0.245076
-0.256220 0.307275 -0.233761
-0.093073 0.294421 -0.238620
-0.250844 0.298566 -0.238483
-0.241129 0.297400 -0.237154
-0.099505 0.296489 -0.211021
0.287691 0.324791 -0.237318
-0.199931 0.275536 -0.240384
-0.230267 0.282136 -0.234162
0.197551 0.306744 -0.241755
0.015197 0.333670 -0.226650
0.088748 0.355117 -0.212635
-0.243463 0.312475 -0.232745
-0.241328 0.328294 -0.210155
-0.083369 0.293918 -0.231922
-0.258122 0.327441 -0.227437
0.151112 0.356247 -0.216021
-0.206261 0.345576 -0.207107
-0.089732 0.290504 -0.235620
0.107677 0.324141 -0.229795
-0.260513 0.309457 -0.230761
0.044019 0.293144 -0.244966
-0.226573 0.255804 -0.239666
-0.236579 0.281201 -0.209330
-0.252817 0.291164 -0.238000
0.300144 0.364904 -0.218048
-0.248314 0.290017 -0.229031
0.269625 0.306765 -0.240423
0.304511 0.331155 -0.229727
-0.204441 0.278694 -0.214981
0.042378 0.348477 -0.218617
-0.233991 0.352704 -0.212831
0.200400 0.310300 -0.210721
-0.183190 0.323652 -0.226504
-0.030397 0.286410 -0.245967
0.298772 0.333941 -0.233041
0.113158 0.295118 -0.216267
0.244416 0.300142 -0.246371
-0.123549 0.290739 -0.230744
0.273397 0.356646 -0.214079
0.072648 0.284268 -0.248305
0.275884 0.321163 -0.226821
-0.220839 0.271243 -0.239379
0.126790 0.300729 -0.245563
0.177975 0.300727 -0.240445
0.247314 0.307077 -0.246719
-0.255739 0.290256 -0.240183
-0.232039 0.283274 -0.236229
-0.253177 0.338232 -0.225083
-0.223458 0.283064 -0.236533
-0.244746 0.271655 -0.246949
0.252512 0.301188 -0.240111
-0.232048 0.311074 -0.208416
-0.046972 0.352971 -0.214568
0.296686 0.334228 -0.226417
0.269388 0.318089 -0.240734
-0.096125 0.270462 -0.244526
-0.249771 0.293959 -0.223172
0.295036 0.329126 -0.235757
0.304238 0.348208 -0.226045
-0.192309 0.287703 -0.224201
-0.220417 0.274754 -0.223513
0.087609 0.354883 -0.212158
-0.243942 0.268416 -0.242285
-0.022355 0.284993 -0.221548
-0.221660 0.272063 -0.239374
0.169057 0.354894 -0.213619
0.290375 0.323424 -0.237398
0.273681 0.362289 -0.211422
0.279099 0.346807 -0.214166
-0.079619 0.344591 -0.213833
0.007376 0.354869 -0.211103
-0.249586 0.309220 -0.234710
0.259094 0.333393 -0.223996
0.024977 0.289264 -0.247082
0.241254 0.308561 -0.222294
0.078909 0.299069 -0.240865
0.129734 0.346806 -0.214415
-0.239394 0.309694 -0.230615
0.116179 0.304579 -0.233355
-0.249546 0.303833 -0.236103
-0.248518 0.327371 -0.224914
-0.083582 0.283216 -0.216366
0.303868 0.361103 -0.222783
0.267851 0.316689 -0.237531
-0.224540 0.274497 -0.236870
-0.262197 0.311962 -0.220444
0.070339 0.323350 -0.232204
-0.223469 0.316271 -0.228096
0.007137 0.291263 -0.225055
0.239024 0.288575 -0.224768
0.178769 0.289114 -0.247671
-0.256194 0.331029 -0.227090
0.282449 0.299876 -0.228984
-0.220300 0.278859 -0.228104
0.261446 0.308328 -0.227340
-0.242722 0.343626 -0.208122
-0.251977 0.294662 -0.232518
0.301138 0.344152 -0.222215
-0.246949 0.292330 -0.240351
-0.245085 0.291631 -0.209765
0.115606 0.322179 -0.210566
0.254956 0.291535 -0.226393
0.292298 0.326949 -0.235536
0.290695 0.329999 -0.220872
0.256214 0.318963 -0.211250
-0.002028 0.287997 -0.230461
-0.115094 0.339041 -0.223714
0.055345 0.300387 -0.241537
0.100878 0.313862 -0.232630
-0.240179 0.288785 -0.209621
0.282076 0.308312 -0.232681
-0.260229 0.336407 -0.218223
-0.168999 0.282577 -0.237957
0.216121 0.293244 -0.245698
0.251059 0.311875 -0.228563
0.081711 0.340568 -0.213950
0.263725 0.320720 -0.243057
-0.002041 0.297317 -0.240954
-0.164469 0.311544 -0.209161
-0.257028 0.346152 -0.218616
0.208788 0.359282 -0.211714
-0.262729 0.309566 -0.214351
0.299398 0.354288 -0.217865
0.179230 0.345758 -0.219915
0.165420 0.298191 -0.247241
0.106596 0.324676 -0.232059
-0.221636 0.261748 -0.239211
0.097160 0.291521 -0.221093
-0.180284 0.289131 -0.210966
0.271758 0.302329 -0.236953
-0.259993 0.323350 -0.207404
0.232973 0.352446 -0.217578
0.268780 0.311517 -0.241488
0.267327 0.313555 -0.220291
-0.149485 0.290885 -0.238144
-0.006957 0.278031 -0.246572
-0.260540 0.328461 -0.216382
0.268162 0.320583 -0.242656
0.285769 0.326131 -0.238834
0.005519 0.342023 -0.215203
0.058879 0.341085 -0.221624
0.185546 0.326812 -0.227467
-0.061813 0.288729 -0.242519
0.235289 0.304474 -0.214832
-0.040176 0.303577 -0.211296
-0.255838 0.298751 -0.237970
0.185533 0.303102 -0.245143
-0.159844 0.350478 -0.217799
0.219427 0.299058 -0.235797
0.253585 0.307611 -0.244271
0.053031 0.320291 -0.211790
0.285289 0.325895 -0.226183
-0.171168 0.283074 -0.230461
0.084624 0.294865 -0.236243
-0.231000 0.350225 -0.207383
0.226007 0.294052 -0.230363
0.242442 0.308368 -0.241358
0.302416 0.335498 -0.234554
0.182443 0.305400 -0.223758
0.046217 0.353459 -0.211814
0.279570 0.299060 -0.228421
-0.182189 0.287574 -0.237299
0.124725 0.292011 -0.217527
-0.249012 0.291781 -0.215841
0.213963 0.302329 -0.240592
0.109999 0.291238 -0.231744
-0.247250 0.335892 -0.210104
0.267827 0.317510 -0.224223
0.258203 0.300566 -0.239142
0.279984 0.322875 -0.229002
0.297814 0.337030 -0.227566
-0.253427 0.344151 -0.221333
0.264251 0.319538 -0.242525
-0.236122 0.276065 -0.241616
0.274444 0.312641 -0.240213
-0.237447 0.261465 -0.243336
0.171438 0.300055 -0.239886
-0.048710 0.284163 -0.229275
0.072918 0.300997 -0.232567
-0.243703 0.349407 -0.216610
-0.175651 0.265145 -0.240804
0.253837 0.300459 -0.239977
-0.227966 0.260590 -0.246320
-0.240222 0.286144 -0.239661
0.292580 0.356795 -0.220620
0.297286 0.327793 -0.236848
0.110236 0.303653 -0.213839
0.277377 0.321210 -0.235433
0.055986 0.291558 -0.247545
-0.108643 0.319547 -0.230795
0.047089 0.323557 -0.230298
-0.253555 0.329467 -0.209486
0.242013 0.302006 -0.245628
0.086415 0.320967 -0.233168
-0.213191 0.276886 -0.237993
0.097852 0.298082 -0.227322
0.058769 0.299561 -0.241239
-0.028546 0.325579 -0.212128
0.142515 0.301117 -0.243043
0.277005 0.318778 -0.219377
-0.077519 0.291891 -0.239482
0.200378 0.311926 -0.235136
-0.226930 0.281004 -0.236075
-0.253707 0.304597 -0.206984
-0.252982 0.300942 -0.236686
0.294693 0.333606 -0.218104
0.273046 0.294120 -0.231056
-0.218194 0.346202 -0.202852
-0.260365 0.308783 -0.233334
0.292218 0.324040 -0.236450
-0.230063 0.336061 -0.221366
-0.247697 0.281958 -0.237763
0.009395 0.322586 -0.232714
-0.124738 0.313597 -0.233935
-0.071378 0.289678 -0.225286
-0.070983 0.279750 -0.245831
0.093296 0.335412 -0.225029
-0.105501 0.281498 -0.244328
-0.238712 0.321341 -0.209322
0.309906 0.358836 -0.222715
0.292223 0.326692 -0.233145
0.281152 0.323688 -0.240024
0.248365 0.311865 -0.212951
-0.224762 0.307322 -0.229481
0.276195 0.320912 -0.239650
0.299683 0.346718 -0.216757
-0.037747 0.291528 -0.243055
-0.170667 0.285141 -0.220140
0.137383 0.301552 -0.243074
-0.250274 0.314033 -0.231620
0.082798 0.303153 -0.239335
0.111150 0.296736 -0.248800
-0.230721 0.283502 -0.235818
-0.224753 0.287169 -0.225135
0.044454 0.350746 -0.215766
-0.231439 0.263927 -0.238941
-0.242750 0.316472 -0.230123
-0.259714 0.336825 -0.214194
-0.258911 0.307817 -0.226017
-0.024975 0.290152 -0.215146
-0.233006 0.304381 -0.228777
0.241881 0.302285 -0.246873
-0.251600 0.290994 -0.242849
0.195936 0.323875 -0.230809
-0.237466 0.291231 -0.232502
0.266965 0.333996 -0.209842
0.082017 0.287872 -0.229912
0.150952 0.291276 -0.229314
-0.251824 0.341130 -0.220650
-0.253221 0.283360 -0.242162
-0.062869 0.292948 -0.213535
-0.238040 0.284563 -0.212659
0.092613 0.347076 -0.219291
0.128714 0.294674 -0.235345
-0.212340 0.266874 -0.240808
0.233897 0.297398 -0.245536
0.174878 0.331515 -0.208707
-0.197311 0.346896 -0.206206
0.242330 0.322129 -0.208363
-0.111939 0.287357 -0.240317
-0.103839 0.292735 -0.238759
0.063091 0.301711 -0.213269
-0.136606 0.352186 -0.214345
-0.240547 0.286219 -0.220817
-0.259462 0.335107 -0.222551
-0.243973 0.280930 -0.234349
0.278987 0.328554 -0.227943
-0.258572 0.324483 -0.228698
0.115521 0.290937 -0.249246
0.170247 0.296508 -0.248462
0.305706 0.345696 -0.231134
-0.087794 0.345713 -0.221754
-0.241641 0.292096 -0.239091
-0.233610 0.254769 -0.244769
-0.007838 0.315853 -0.234233
0.090192 0.352994 -0.215691
-0.259118 0.297182 -0.236528
0.272245 0.313463 -0.241109
0.104360 0.283233 -0.249405
-0.127397 0.306060 -0.209524
0.309034 0.344414 -0.226817
0.118757 0.300260 -0.241863
0.090873 0.311366 -0.211618
-0.222305 0.262776 -0.240576
-0.242256 0.277508 -0.245309
0.184191 0.298269 -0.215104
-0.222659 0.256157 -0.238953
-0.259037 0.306847 -0.219818
0.258475 0.303924 -0.217492
-0.242376 0.293246 -0.207838
0.297483 0.350264 -0.223287
0.286627 0.317864 -0.232775
0.132922 0.308803 -0.232359
-0.150025 0.270654 -0.242544
0.259184 0.311246 -0.239486
0.276119 0.291464 -0.228528
0.284295 0.363644 -0.215500
-0.050627 0.296457 -0.236535
-0.240628 0.347434 -0.207587
-0.220778 0.276161 -0.224700
-0.086703 0.281081 -0.219093
0.097087 0.299743 -0.242737
0.274342 0.320975 -0.241271
-0.170414 0.347834 -0.212169
-0.225266 0.288610 -0.227303
-0.195766 0.286196 -0.234851
-0.261492 0.311955 -0.226219
0.262581 0.359018 -0.211278
0.291831 0.330827 -0.233946
-0.244296 0.288505 -0.217344
-0.197216 0.280280 -0.213416
-0.244277 0.289359 -0.223948
-0.018653 0.310481 -0.211861
0.213012 0.295765 -0.246091
-0.243974 0.302624 -0.238179
-0.214009 0.304616 -0.208206
0.280328 0.320929 -0.239854
0.150311 0.357990 -0.210801
-0.236809 0.281353 -0.239383
-0.053591 0.336528 -0.225172
0.196206 0.344854 -0.211302
-0.257891 0.320277 -0.207964
0.294411 0.330119 -0.228981
0.223354 0.301741 -0.217796
0.256019 0.302942 -0.242352
-0.235630 0.268965 -0.238945
-0.234331 0.266595 -0.246888
-0.255397 0.341540 -0.225274
0.054137 0.342552 -0.214881
-0.257702 0.340994 -0.219076
-0.256175 0.300382 -0.234170
-0.049220 0.279911 -0.246237
-0.244622 0.340336 -0.209995
0.268191 0.314671 -0.241993
0.251294 0.309473 -0.246205
-0.139663 0.292093 -0.231841
-0.209570 0.284991 -0.211310
-0.243190 0.271709 -0.239543
0.284562 0.324347 -0.239503
-0.245740 0.333770 -0.222697
0.298934 0.329261 -0.232857
0.294906 0.333641 -0.230649
-0.239309 0.260520 -0.246246
0.089849 0.299320 -0.243289
-0.169060 0.284868 -0.238176
-0.228399 0.275134 -0.238038
0.264703 0.314830 -0.231742
-0.257436 0.304292 -0.235045
-0.216099 0.283887 -0.235945
0.130372 0.310299 -0.212639
-0.249837 0.284121 -0.244364
0.303763 0.363112 -0.219400
-0.034378 0.294703 -0.241612
0.279459 0.322656 -0.214500
0.212297 0.318472 -0.230003
0.157014 0.307801 -0.234525
0.237843 0.328101 -0.227899
0.045674 0.293188 -0.234118
0.078530 0.322317 -0.230482
-0.238798 0.288926 -0.238126
0.260800 0.312540 -0.224063
0.074521 0.295080 -0.246004
-0.047727 0.355492 -0.210841
0.272252 0.339674 -0.211558
-0.245297 0.285327 -0.233758
-0.247364 0.302273 -0.237804
-0.002351 0.292283 -0.234517
0.305894 0.354339 -0.225822
-0.148637 0.279067 -0.242085
-0.246241 0.309313 -0.234404
0.283957 0.324033 -0.230764
0.268907 0.317992 -0.228171
-0.257364 0.315147 -0.231206
0.253762 0.308927 -0.245813
-0.242922 0.308410 -0.234836
-0.001390 0.350206 -0.218395
-0.238898 0.276975 -0.235917
-0.137556 0.290287 -0.226661
-0.147868 0.279280 -0.226915
0.261149 0.328476 -0.209134
-0.254426 0.325509 -0.229015
0.149353 0.302974 -0.244195
0.119079 0.321957 -0.233748
0.268380 0.306737 -0.240995
-0.028270 0.279478 -0.246541
-0.245943 0.317047 -0.228478
-0.151905 0.350432 -0.208456
0.282697 0.325184 -0.223350
-0.103639 0.318659 -0.210927
0.301001 0.339335 -0.230116
-0.260963 0.321242 -0.218153
-0.243098 0.321476 -0.226604
0.206620 0.315627 -0.209512
0.275760 0.324073 -0.241231
0.196295 0.301524 -0.240297
-0.122663 0.348762 -0.215256
-0.251355 0.295803 -0.218628
-0.176640 0.277831 -0.240670
0.258516 0.307277 -0.216028
0.294794 0.324792 -0.236579
-0.257062 0.294876 -0.239612
0.233688 0.342174 -0.221013
-0.193919 0.285114 -0.233900
-0.230842 0.347652 -0.218472
0.307463 0.362750 -0.221895
-0.247309 0.269070 -0.243747
-0.230133 0.278739 -0.223601
-0.243559 0.289064 -0.227179
-0.035926 0.344864 -0.214295
-0.119181 0.290237 -0.212636
-0.027846 0.345352 -0.221100
-0.225095 0.343054 -0.208473
0.032687 0.339052 -0.224545
0.278254 0.287529 -0.225979
-0.240121 0.286099 -0.210432
0.255134 0.313579 -0.245438
-0.022422 0.320594 -0.233424
0.273374 0.319087 -0.238977
-0.212973 0.280413 -0.225401
-0.099800 0.336524 -0.213031
0.073709 0.316875 -0.211310
-0.020979 0.294658 -0.228831
0.003680 0.320553 -0.212402
-0.002781 0.353488 -0.213744
0.283533 0.323301 -0.238490
-0.219617 0.326495 -0.210390
-0.033009 0.284619 -0.246474
0.104834 0.350032 -0.215367
0.186253 0.288549 -0.227689
0.116711 0.329498 -0.227958
0.299169 0.342487 -0.218666
-0.117494 0.269567 -0.243249
0.198519 0.289292 -0.245997
-0.129701 0.281316 -0.215372
-0.262355 0.312956 -0.210467
0.097269 0.291290 -0.248977
-0.191131 0.274925 -0.241149
0.289066 0.324245 -0.237045
-0.200803 0.308857 -0.230618
0.019646 0.301598 -0.212941
0.288011 0.359697 -0.216684
-0.074734 0.285237 -0.244333
-0.259286 0.331803 -0.225152
-0.220943 0.337228 -0.211906
0.273609 0.349969 -0.219410
-0.235615 0.289528 -0.229851
-0.225002 0.253258 -0.241749
-0.228313 0.280753 -0.229910
-0.250271 0.282380 -0.240638
-0.218177 0.282868 -0.236132
-0.252401 0.283060 -0.241562
0.238863 0.300817 -0.238429
-0.210003 0.281175 -0.230496
0.271005 0.292062 -0.228712
0.164956 0.306755 -0.228971
-0.244298 0.315086 -0.209001
-0.250703 0.296240 -0.239760
0.115406 0.297949 -0.223815
-0.120643 0.300723 -0.209317
-0.225464 0.271989 -0.240220
-0.130109 0.279618 -0.217094
-0.142606 0.330457 -0.225793
-0.020002 0.297039 -0.231899
-0.245691 0.349907 -0.211828
0.250488 0.310111 -0.245756
0.288920 0.326936 -0.235049
-0.152894 0.340832 -0.213717
-0.217218 0.318371 -0.226803
0.292726 0.328357 -0.235200
0.029320 0.281950 -0.247221
0.272377 0.353092 -0.213449
0.235475 0.312246 -0.235015
0.106467 0.354927 -0.214831
0.243459 0.355487 -0.211466
-0.254314 0.300652 -0.207688
-0.247601 0.297855 -0.239597
-0.067620 0.294569 -0.239308
0.023407 0.292730 -0.245220
-0.172617 0.316989 -0.229681
-0.011061 0.282176 -0.217807
-0.181545 0.285850 -0.236829
-0.223723 0.347383 -0.206445
-0.260450 0.334861 -0.220101
0.239986 0.296197 -0.245619
0.134250 0.289960 -0.230037
-0.202814 0.293381 -0.208885
0.116822 0.301328 -0.243115
0.032979 0.282883 -0.247660
0.232026 0.299971 -0.246110
-0.154781 0.282175 -0.240354
0.056110 0.353372 -0.214796
-0.248389 0.295513 -0.208435
-0.195333 0.286714 -0.236914
-0.225835 0.278309 -0.226776
0.164609 0.294297 -0.234404
-0.253066 0.319478 -0.230922
0.284968 0.327414 -0.229491
0.171411 0.296538 -0.216784
-0.257300 0.334041 -0.209445
-0.253387 0.330321 -0.227807
-0.067706 0.325533 -0.211339
-0.194511 0.336140 -0.222394
0.302719 0.343554 -0.228276
-0.065930 0.272342 -0.245430
0.238422 0.310817 -0.230889
-0.249888 0.288728 -0.236151
-0.255066 0.290376 -0.241546
0.274958 0.326251 -0.212166
0.266284 0.300422 -0.239207
0.109505 0.288972 -0.229556
0.040479 0.287426 -0.229661
0.221101 0.304601 -0.243475
-0.155109 0.291137 -0.238019
0.265140 0.314618 -0.242572
-0.249388 0.305248 -0.207682
-0.215023 0.287668 -0.232685
-0.259904 0.314255 -0.207299
-0.064862 0.286911 -0.231463
0.237241 0.332445 -0.207224
0.067574 0.293044 -0.247106
0.299850 0.329513 -0.230963
0.115701 0.356932 -0.210454
0.212237 0.336606 -0.223496
0.034883 0.277571 -0.247145
0.261749 0.304996 -0.242142
-0.046695 0.283726 -0.217570
-0.252885 0.297438 -0.227654
0.258892 0.316460 -0.243722
0.283106 0.323859 -0.239741
0.300071 0.341810 -0.227626
-0.240853 0.308461 -0.232474
-0.048250 0.318689 -0.211373
0.223222 0.357000 -0.211301
-0.247727 0.310503 -0.233183
-0.255677 0.321349 -0.229170
0.298026 0.350637 -0.216602
0.277273 0.324170 -0.240864
0.083205 0.339288 -0.222854
0.104755 0.298439 -0.245827
0.253311 0.305464 -0.219757
0.230803 0.309980 -0.225925
0.036662 0.347655 -0.215414
-0.217122 0.259858 -0.239033
0.267561 0.311740 -0.217976
-0.238879 0.353384 -0.210829
-0.222885 0.251903 -0.243288
-0.231566 0.283881 -0.236741
-0.246460 0.287278 -0.240788
0.293036 0.328593 -0.237443
-0.203395 0.265453 -0.240431
-0.229413 0.273294 -0.241123
-0.175882 0.303548 -0.231228
0.153612 0.325763 -0.232206
0.019510 0.299050 -0.240278
-0.070882 0.304809 -0.210434
0.035406 0.351558 -0.216231
-0.151238 0.317584 -0.231884
-0.228514 0.288138 -0.229961
0.148036 0.348655 -0.219151
0.271218 0.318430 -0.214198
-0.246019 0.289193 -0.229666
0.087378 0.293900 -0.215602
-0.240762 0.269652 -0.239109
0.116414 0.351912 -0.217926
-0.256431 0.348986 -0.217000
0.259157 0.311016 -0.242653
0.281165 0.323337 -0.239547
0.161123 0.298268 -0.238616
0.277321 0.322471 -0.232935
0.214379 0.297404 -0.244967
0.001978 0.305314 -0.212058
-0.143247 0.273911 -0.242794
0.259428 0.308975 -0.243307
-0.214318 0.271023 -0.240260
0.298514 0.336541 -0.231299
-0.037885 0.274453 -0.246512
-0.252462 0.342272 -0.209064
0.202818 0.301234 -0.239381
-0.049031 0.293971 -0.237563
-0.251079 0.293994 -0.211534
-0.231222 0.284618 -0.220643
0.144199 0.304232 -0.213569
-0.258450 0.327671 -0.208372
0.236998 0.302270 -0.241466
-0.030376 0.294009 -0.240692
-0.196683 0.281893 -0.217464
-0.195561 0.315206 -0.209010
0.027180 0.300318 -0.240811
0.290841 0.326535 -0.235967
0.255351 0.311652 -0.231507
0.270648 0.317010 -0.238811
0.136891 0.334925 -0.210782
0.144417 0.285047 -0.248389
0.070049 0.324822 -0.228783
0.077231 0.299319 -0.230663
-0.035354 0.288919 -0.244967
0.280855 0.323606 -0.221070
-0.258553 0.295195 -0.238591
0.294004 0.332468 -0.233053
-0.222586 0.279923 -0.212838
0.260019 0.344765 -0.210626
0.257658 0.288512 -0.223564
-0.255074 0.347961 -0.219678
-0.252118 0.332010 -0.225702
-0.231307 0.281207 -0.235952
-0.220776 0.279136 -0.236157
0.248403 0.303978 -0.246336
0.228772 0.294479 -0.246307
-0.240636 0.279846 -0.240331
0.085993 0.288831 -0.218149
-0.088876 0.294527 -0.238594
-0.235481 0.286422 -0.231493
0.064197 0.335660 -0.224798
-0.219240 0.276103 -0.236841
0.151656 0.357235 -0.213793
-0.058956 0.275959 -0.245864
-0.052376 0.348521 -0.213976
0.279080 0.309717 -0.229917
0.264330 0.289529 -0.225328
-0.262237 0.314523 -0.216987
0.266391 0.298324 -0.235597
-0.244135 0.287238 -0.230242
0.116317 0.305494 -0.237408
0.066527 0.287707 -0.220722
-0.253492 0.296151 -0.233158
0.261964 0.301656 -0.241531
-0.236845 0.282782 -0.239236
-0.179279 0.285860 -0.227800
0.099190 0.318340 -0.233228
0.301490 0.347076 -0.219861
0.100272 0.298172 -0.245344
0.029354 0.352887 -0.213628
-0.236491 0.294939 -0.207200
-0.234524 0.317143 -0.227947
-0.244915 0.313803 -0.231313
-0.247019 0.269143 -0.245661
-0.124275 0.290550 -0.238119
0.294444 0.330379 -0.234283
-0.239904 0.298904 -0.234268
0.261192 0.316054 -0.243924
0.291930 0.329701 -0.230047
-0.229608 0.329389 -0.223107
0.289196 0.361216 -0.218095
-0.254064 0.298864 -0.229215
0.268366 0.339670 -0.221880
-0.225182 0.314214 -0.228909
-0.139818 0.269853 -0.242362
0.224611 0.360157 -0.209128
-0.239728 0.313540 -0.229176
-0.257254 0.321348 -0.229081
-0.248089 0.285802 -0.241094
0.023496 0.292856 -0.214895
-0.258990 0.323817 -0.227822
-0.233711 0.343206 -0.208093
0.065015 0.293990 -0.226019
0.293745 0.332687 -0.220635
-0.244626 0.288900 -0.221075
0.099790 0.337885 -0.212720
-0.239524 0.285175 -0.216100
0.041825 0.297727 -0.231998
-0.258707 0.304872 -0.215971
0.110440 0.293427 -0.234180
0.285910 0.323583 -0.238099
0.300870 0.335415 -0.232926
0.294206 0.357937 -0.218027
0.289995 0.327615 -0.225773
0.208181 0.302109 -0.244540
0.308532 0.362885 -0.219591
-0.186314 0.280877 -0.238814
0.133389 0.289507 -0.249938
-0.252537 0.338553 -0.223376
-0.261072 0.325208 -0.212864
0.068670 0.351169 -0.216827
0.122753 0.342918 -0.221359
-0.244362 0.304668 -0.207510
0.179721 0.331804 -0.226002
0.064444 0.353423 -0.213501
0.243701 0.359059 -0.209257
0.298398 0.339056 -0.227435
0.223414 0.301249 -0.238514
-0.227688 0.259373 -0.238811
0.299711 0.328025 -0.235322
-0.234687 0.260315 -0.242032
-0.171548 0.349365 -0.210210
0.243062 0.302610 -0.247080
-0.238753 0.291964 -0.235571
-0.091716 0.278182 -0.244734
-0.222646 0.254981 -0.240784
0.216968 0.304789 -0.213302
0.157371 0.301174 -0.241944
-0.245907 0.281572 -0.244449
0.271262 0.319624 -0.223347
0.219759 0.304284 -0.219674
-0.237365 0.282392 -0.212498
0.106933 0.324179 -0.231039
0.247685 0.303875 -0.243266
0.082790 0.300737 -0.213856
0.226802 0.289979 -0.225354
-0.206504 0.333453 -0.211895
-0.252220 0.314317 -0.232371
-0.250016 0.301741 -0.237010
0.084803 0.346167 -0.215161
0.265246 0.300596 -0.239986
0.023548 0.336083 -0.214604
-0.253367 0.284220 -0.242299
0.293272 0.364229 -0.216100
-0.064690 0.284775 -0.229466
-0.110612 0.285267 -0.241224
0.062599 0.281068 -0.248008
0.201822 0.300776 -0.238717
0.263073 0.297322 -0.225615
-0.046746 0.342568 -0.222848
-0.197148 0.329372 -0.224297
0.276163 0.309952 -0.238099
-0.078117 0.284022 -0.221326
0.251190 0.328524 -0.225380
-0.232607 0.276134 -0.238569
0.274815 0.301290 -0.234337
0.274693 0.319865 -0.229069
-0.250321 0.333310 -0.223226
0.035725 0.311332 -0.233885
-0.112985 0.351541 -0.214595
0.250600 0.295312 -0.230462
0.289222 0.322713 -0.232385
0.289209 0.326909 -0.238815
-0.260758 0.335011 -0.215260
-0.016732 0.354905 -0.212600
-0.243318 0.292615 -0.208408
-0.122020 0.308764 -0.234107
-0.247743 0.317822 -0.228281
0.308686 0.343388 -0.228757
-0.253786 0.297255 -0.238331
0.086126 0.291972 -0.233329
-0.083660 0.313384 -0.234504
0.093009 0.289914 -0.229951
-0.028358 0.306394 -0.233251
0.064886 0.292012 -0.215312
0.036844 0.324097 -0.212701
0.050899 0.322828 -0.233086
0.118313 0.301697 -0.244356
0.247874 0.310711 -0.237695
0.301679 0.356289 -0.219745
-0.235453 0.300521 -0.207008
-0.203958 0.289254 -0.227862
0.259960 0.317766 -0.244431
0.253715 0.300370 -0.239280
0.286316 0.324060 -0.236732
0.108582 0.281317 -0.249670
-0.236436 0.288593 -0.209627
-0.248042 0.300238 -0.238602
-0.250826 0.295074 -0.227482
-0.255411 0.335824 -0.226588
-0.074269 0.292861 -0.228872
-0.186717 0.351364 -0.213359
-0.228565 0.350236 -0.210934
0.273631 0.312197 -0.240491
-0.243847 0.286962 -0.240582
0.206574 0.350640 -0.211637
-0.234374 0.341366 -0.210422
-0.169210 0.290673 -0.233688
0.261793 0.300733 -0.239014
0.221863 0.300268 -0.236826
-0.254046 0.298230 -0.209370
0.228310 0.291872 -0.227970
0.286855 0.323453 -0.238537
0.273873 0.319651 -0.239376
-0.154948 0.344104 -0.221275
0.270949 0.315267 -0.219729
0.278714 0.291415 -0.226873
0.257993 0.293577 -0.228846
-0.256488 0.343301 -0.222639
-0.245127 0.271255 -0.241177
0.081679 0.300334 -0.241753
-0.224013 0.298062 -0.228616
-0.250329 0.315998 -0.209258
-0.216160 0.289327 -0.227632
0.281610 0.335750 -0.224700
-0.003912 0.326598 -0.229084
-0.247941 0.290522 -0.211811
-0.257809 0.306295 -0.223265
-0.260361 0.311764 -0.231089
-0.243851 0.274226 -0.238090
0.268102 0.323206 -0.242252
-0.260840 0.301109 -0.235406
-0.225783 0.283233 -0.236024
-0.249531 0.333088 -0.210158
0.040252 0.296254 -0.228428
0.142278 0.339658 -0.223561
0.141187 0.296412 -0.237319
-0.019927 0.291458 -0.242727
-0.243059 0.297568 -0.238836
0.307716 0.339831 -0.228154
-0.239084 0.276925 -0.242143
0.297441 0.329262 -0.231590
0.309068 0.348576 -0.225487
0.125094 0.295893 -0.250163
-0.234200 0.266488 -0.239006
0.255734 0.311582 -0.244751
-0.311543 0.578763 -0.294576
-0.293776 0.714240 -0.284172
-0.341987 0.143595 -0.249983
-0.340787 0.141939 -0.248097
-0.305350 0.902319 -0.340753
-0.317224 0.874929 -0.322173
-0.338228 0.671603 -0.301725
-0.334168 0.935418 -0.356586
-0.319984 0.728847 -0.297320
-0.332931 0.035337 -0.271987
-0.369483 0.046010 -0.272697
-0.308871 0.130727 -0.215880
-0.313842 0.691041 -0.278699
-0.295954 0.900932 -0.330885
-0.316506 0.916752 -0.332234
-0.328551 0.609483 -0.294892
-0.328300 0.286859 -0.234532
-0.300054 0.924790 -0.346525
-0.317545 0.071477 -0.254643
-0.292331 0.883967 -0.313979
-0.337749 0.905613 -0.327338
-0.319468 0.539061 -0.272126
-0.356257 0.249248 -0.261050
-0.326566 0.814761 -0.319950
-0.314300 0.645009 -0.276836
-0.321762 0.115477 -0.229644
-0.317404 0.082621 -0.254170
-0.355157 0.072253 -0.254172
-0.334826 0.213727 -0.223628
-0.330529 0.543625 -0.277283
-0.295048 0.555987 -0.258774
-0.322017 0.046876 -0.267487
-0.296762 0.918801 -0.339963
-0.338665 0.816184 -0.338639
-0.320068 0.826407 -0.314156
-0.328468 0.475678 -0.287511
-0.337018 0.381368 -0.269236
-0.308531 0.839659 -0.329726
-0.320881 0.724714 -0.306282
-0.359406 0.048016 -0.264460
-0.318257 0.173063 -0.266805
-0.291835 0.784858 -0.297639
-0.313192 0.807071 -0.300910
-0.343614 0.317404 -0.259228
-0.301400 0.902589 -0.337914
-0.319423 0.924698 -0.351642
-0.330708 0.461878 -0.264556
-0.324239 0.837064 -0.320662
-0.307224 0.499821 -0.246185
-0.305945 0.935821 -0.353547
-0.289207 0.740242 -0.284020
-0.294272 0.927691 -0.335011
-0.337299 0.353844 -0.266112
-0.321234 0.819829 -0.323484
-0.301845 0.931951 -0.349772
-0.328917 0.051843 -0.264236
-0.341655 0.155200 -0.238419
-0.329479 0.078897 -0.251210
-0.301737 0.498262 -0.253691
-0.333545 0.835757 -0.322908
-0.318227 0.717281 -0.299040
-0.305607 0.920921 -0.349643
-0.331471 0.265176 -0.247007
-0.349636 0.297204 -0.267155
-0.321232 0.706370 -0.317169
-0.319877 0.918760 -0.321151
-0.323541 0.667009 -0.276065
-0.293815 0.914814 -0.329447
-0.330567 0.838708 -0.314909
-0.299157 0.453230 -0.246265
-0.304363 0.830707 -0.310266
-0.312040 0.750677 -0.298088
-0.325037 0.504935 -0.253871
-0.327471 0.672214 -0.296348
-0.311658 0.101064 -0.246453
-0.325902 0.935125 -0.353817
-0.319508 0.902865 -0.339514
-0.295259 0.930753 -0.343021
-0.294778 0.844921 -0.302452
-0.362587 0.027885 -0.274791
-0.319153 0.111756 -0.234301
-0.325370 0.045151 -0.269916
-0.347902 0.519468 -0.283185
-0.339557 0.239778 -0.247799
-0.332023 0.583655 -0.284871
-0.326980 0.041371 -0.272622
-0.320425 0.506273 -0.258241
-0.322953 0.756018 -0.305109
-0.310517 0.269688 -0.232811
-0.326538 0.828356 -0.331006
-0.315393 0.918005 -0.333252
-0.329441 0.882520 -0.333443
-0.340983 0.051119 -0.257711
-0.317273 0.064019 -0.259129
-0.303243 0.915620 -0.347147
-0.323718 0.057676 -0.259782
-0.312239 0.897462 -0.333126
-0.310845 0.895726 -0.333070
-0.332575 0.207910 -0.268560
-0.342062 0.602086 -0.292882
-0.292256 0.842138 -0.310613
-0.335351 0.050403 -0.264781
-0.313417 0.275990 -0.228293
-0.311315 0.932319 -0.357003
-0.334212 0.373097 -0.259664
-0.326250 0.147401 -0.264340
-0.315443 0.272631 -0.233223
-0.299099 0.717168 -0.287026
-0.346405 0.133910 -0.263601
-0.315524 0.852045 -0.316102
-0.318628 0.418380 -0.274079
-0.313754 0.115727 -0.234801
-0.309792 0.728383 -0.318307
-0.290198 0.818744 -0.301125
-0.352153 0.133248 -0.259521
-0.319949 0.057303 -0.261766
-0.320011 0.898024 -0.337267
-0.328870 0.770109 -0.312690
-0.296434 0.909944 -0.336921
-0.323962 0.630812 -0.285105
-0.340905 0.565416 -0.296617
-0.315298 0.788654 -0.317377
-0.321115 0.579760 -0.290003
-0.342946 0.776049 -0.306848
-0.322937 0.074737 -0.255473
-0.300976 0.912800 -0.344292
-0.336245 0.332343 -0.252491
-0.325862 0.039298 -0.273480
-0.338870 0.859738 -0.319005
-0.337572 0.884063 -0.352926
-0.302525 0.929870 -0.343906
-0.310127 0.557182 -0.295350
-0.293413 0.641681 -0.271772
-0.338202 0.300784 -0.258017
-0.309353 0.895455 -0.340858
-0.317180 0.645673 -0.299913
-0.297394 0.924319 -0.344211
-0.309942 0.923875 -0.331335
-0.313714 0.647732 -0.283365
-0.337861 0.675010 -0.314688
-0.327723 0.743518 -0.317334
-0.329541 0.328752 -0.256214
-0.297922 0.574554 -0.264566
-0.312401 0.449284 -0.248589
-0.342645 0.038291 -0.269924
-0.320875 0.766808 -0.294559
-0.333454 0.844504 -0.337531
-0.319748 0.896620 -0.334583
-0.318071 0.562885 -0.249580
-0.311454 0.918134 -0.338737
-0.318087 0.084425 -0.251807
-0.341269 0.103014 -0.235336
-0.345401 0.700117 -0.300526
-0.322350 0.914783 -0.329496
-0.338629 0.064256 -0.252458
-0.339126 0.125347 -0.208910
-0.324866 0.597975 -0.288615
-0.292642 0.923665 -0.336538
-0.334249 0.900322 -0.335316
-0.302434 0.930063 -0.351717
-0.325731 0.854080 -0.325145
-0.318173 0.835989 -0.317659
-0.302635 0.780198 -0.286250
-0.314435 0.834160 -0.322916
-0.328399 0.489252 -0.272739
-0.349821 0.095770 -0.255836
-0.312799 0.082970 -0.253733
-0.334975 0.467387 -0.278330
-0.335626 0.089636 -0.249414
-0.310004 0.533005 -0.260294
-0.336731 0.274545 -0.258092
-0.303479 0.775340 -0.297397
-0.308743 0.122809 -0.226066
-0.305891 0.906392 -0.343179
-0.329040 0.130614 -0.211753
-0.349250 0.374478 -0.275793
-0.339056 0.555138 -0.285083
-0.325948 0.392304 -0.238628
-0.299043 0.908810 -0.340394
-0.320787 0.796459 -0.310383
-0.325074 0.606356 -0.281217
-0.315981 0.816835 -0.331108
-0.336633 0.756489 -0.324805
-0.334878 0.042457 -0.269689
-0.359594 0.111963 -0.262839
-0.314135 0.813584 -0.310952
-0.309818 0.419761 -0.280432
-0.316555 0.867831 -0.320624
-0.328302 0.057020 -0.259370
-0.292749 0.921659 -0.334188
-0.323010 0.054753 -0.262985
-0.293920 0.602949 -0.263372
-0.294015 0.808240 -0.303756
-0.309897 0.105816 -0.242468
-0.330369 0.761691 -0.307750
-0.330943 0.094780 -0.264418
-0.310314 0.928832 -0.347777
-0.308111 0.925621 -0.334078
-0.349430 0.438560 -0.273731
-0.343594 0.081256 -0.245261
-0.323230 0.874922 -0.326454
-0.313004 0.750616 -0.286144
-0.327430 0.617037 -0.287258
-0.301735 0.907851 -0.343497
-0.324228 0.743277 -0.305381
-0.329542 0.837358 -0.323995
-0.315193 0.094378 -0.251580
-0.314027 0.656077 -0.285787
-0.297793 0.903642 -0.335638
-0.300432 0.605867 -0.270672
-0.298921 0.697721 -0.273452
-0.315815 0.544444 -0.287351
-0.324137 0.039182 -0.272479
-0.334291 0.760663 -0.311576
-0.341554 0.046937 -0.263751
-0.302254 0.463347 -0.248374
-0.336478 0.447625 -0.268413
-0.318204 0.208558 -0.268686
-0.346294 0.031389 -0.272063
-0.308004 0.912702 -0.344565
-0.309045 0.656395 -0.306860
-0.329118 0.493912 -0.269494
-0.290711 0.711956 -0.281303
-0.301302 0.863277 -0.319190
-0.326620 0.123349 -0.214879
-0.326774 0.561366 -0.271800
-0.357050 0.133027 -0.265208
-0.333353 0.420926 -0.241471
-0.327156 0.891952 -0.342863
-0.343809 0.645782 -0.308374
-0.313643 0.172328 -0.223008
-0.319064 0.281518 -0.269401
-0.355014 0.223542 -0.265191
-0.321009 0.099816 -0.244175
-0.329777 0.596116 -0.292493
-0.291100 0.757143 -0.290175
-0.328441 0.533023 -0.281158
-0.310266 0.120267 -0.228996
-0.316945 0.860844 -0.304339
-0.318649 0.885773 -0.323220
-0.349018 0.047799 -0.269715
-0.290952 0.859977 -0.310689
-0.326357 0.383065 -0.253386
-0.301912 0.901009 -0.334206
-0.294075 0.922848 -0.338281
-0.298568 0.929433 -0.346724
-0.316238 0.876052 -0.318266
-0.320381 0.688784 -0.292750
-0.320048 0.897866 -0.339191
-0.345382 0.424429 -0.267613
-0.313557 0.900896 -0.340827
-0.320587 0.780761 -0.304139
-0.312745 0.926972 -0.337574
-0.328738 0.062186 -0.254627
-0.327283 0.042384 -0.271995
-0.331415 0.369717 -0.263057
-0.312003 0.728749 -0.293095
-0.294771 0.907550 -0.330732
-0.336972 0.319112 -0.239913
-0.335937 0.734447 -0.324912
-0.342337 0.312090 -0.265536
-0.306811 0.383113 -0.242120
-0.335334 0.913733 -0.324728
-0.322951 0.076110 -0.268552
-0.313168 0.733656 -0.289658
-0.307413 0.251692 -0.230230
-0.293257 0.746887 -0.291709
-0.323921 0.045313 -0.269561
-0.322017 0.710652 -0.303263
-0.352447 0.041290 -0.272263
-0.348917 0.054740 -0.261380
-0.327713 0.046937 -0.268037
-0.328994 0.036367 -0.271540
-0.330432 0.686595 -0.301979
-0.319565 0.613169 -0.303259
-0.294750 0.919120 -0.337132
-0.324033 0.320339 -0.227357
-0.302682 0.924513 -0.348994
-0.319699 0.049617 -0.265194
-0.337933 0.794981 -0.313558
-0.298002 0.472614 -0.246571
-0.327440 0.727781 -0.305816
-0.350587 0.592539 -0.290714
-0.311143 0.122583 -0.226649
-0.355886 0.146472 -0.262888
-0.316616 0.606217 -0.267994
-0.307783 0.899153 -0.335203
-0.336022 0.302369 -0.254032
-0.312991 0.724500 -0.312008
-0.335349 0.687558 -0.300866
-0.304400 0.333704 -0.236129
-0.309252 0.942562 -0.352393
-0.292874 0.925205 -0.331244
-0.338811 0.450011 -0.268517
-0.347450 0.894659 -0.349248
-0.323652 0.907080 -0.337943
-0.313296 0.886994 -0.342864
-0.356394 0.034707 -0.272013
-0.331076 0.460183 -0.256277
-0.344720 0.202836 -0.256850
-0.325162 0.804691 -0.315563
-0.336812 0.109627 -0.230564
-0.313675 0.074077 -0.256736
-0.310636 0.939517 -0.356208
-0.320122 0.617505 -0.285945
-0.335301 0.246111 -0.253335
-0.333553 0.091673 -0.246387
-0.312816 0.923594 -0.341471
-0.324947 0.462162 -0.275680
-0.300361 0.919965 -0.345332
-0.310853 0.856212 -0.328515
-0.328615 0.104727 -0.239640
-0.342004 0.881149 -0.350091
-0.345090 0.210727 -0.255522
-0.296476 0.651009 -0.276177
-0.303209 0.887472 -0.310881
-0.321936 0.435965 -0.236812
-0.319761 0.053545 -0.263567
-0.312846 0.806739 -0.307525
-0.299509 0.915760 -0.343176
-0.320268 0.068059 -0.254681
-0.351461 0.217407 -0.255174
-0.327562 0.105452 -0.268135
-0.339735 0.193383 -0.248455
-0.362970 0.053176 -0.267070
-0.313170 0.402633 -0.280777
-0.291137 0.809913 -0.295062
-0.310011 0.738614 -0.315986
-0.295026 0.848306 -0.314518
-0.305637 0.248548 -0.228460
-0.315588 0.103972 -0.244640
-0.334714 0.911689 -0.355377
-0.349134 0.054325 -0.252623
-0.322207 0.328712 -0.276648
-0.317596 0.864917 -0.325941
-0.333765 0.213539 -0.234645
-0.303310 0.905454 -0.343796
-0.293340 0.869004 -0.315726
-0.342599 0.178645 -0.254125
-0.314400 0.817868 -0.309913
-0.333180 0.808466 -0.334479
-0.323910 0.049547 -0.266217
-0.313595 0.405577 -0.276329
-0.310615 0.658325 -0.309579
-0.294555 0.678014 -0.278200
-0.327977 0.121198 -0.222455
-0.313963 0.085347 -0.252730
-0.323610 0.692417 -0.294202
-0.294346 0.760800 -0.285062
-0.333809 0.272114 -0.265315
-0.300858 0.933596 -0.353437
-0.317512 0.897211 -0.325455
-0.316128 0.069599 -0.256811
-0.324451 0.398321 -0.259248
-0.313066 0.911824 -0.340170
-0.305567 0.927712 -0.352422
-0.360561 0.108858 -0.266802
-0.303348 0.936293 -0.356753
-0.308145 0.695798 -0.270811
-0.334399 0.563794 -0.293151
-0.309518 0.372659 -0.235436
-0.325411 0.069045 -0.268921
-0.332782 0.901038 -0.348671
-0.302194 0.904421 -0.341161
-0.313264 0.131552 -0.214664
-0.341153 0.182827 -0.230096
-0.295026 0.926921 -0.336036
-0.307556 0.932240 -0.350732
-0.349018 0.041613 -0.268108
-0.328375 0.327161 -0.240839
-0.314768 0.923219 -0.344767
-0.322508 0.450330 -0.262253
-0.333252 0.578188 -0.298400
-0.350323 0.372455 -0.265678
-0.311763 0.774964 -0.301101
-0.325116 0.882777 -0.330614
-0.329303 0.869566 -0.341410
-0.312427 0.794872 -0.301463
-0.300607 0.931129 -0.350513
-0.316869 0.924359 -0.332453
-0.313460 0.888734 -0.331223
-0.357958 0.324366 -0.267451
-0.294589 0.874700 -0.321102
-0.312873 0.925066 -0.340760
-0.320566 0.891093 -0.329343
-0.326907 0.860230 -0.328448
-0.342206 0.299369 -0.273288
-0.331077 0.680933 -0.311095
-0.310567 0.101249 -0.245625
-0.317198 0.591478 -0.276391
-0.289033 0.775661 -0.291989
-0.322023 0.660675 -0.299291
-0.313730 0.641773 -0.301414
-0.348704 0.045556 -0.264632
-0.309052 0.818135 -0.292309
-0.312392 0.795029 -0.320745
-0.295011 0.694070 -0.282646
-0.300816 0.375758 -0.238365
-0.301902 0.920949 -0.346811
-0.320341 0.061130 -0.259166
-0.297257 0.927145 -0.344910
-0.335757 0.185447 -0.245569
-0.297254 0.614191 -0.270012
-0.302367 0.582005 -0.256630
-0.312275 0.900710 -0.338795
-0.336619 0.077931 -0.250816
-0.324778 0.696828 -0.298385
-0.343017 0.159328 -0.252800
-0.337276 0.927502 -0.360558
-0.355718 0.026536 -0.272507
-0.328420 0.548231 -0.276187
-0.320510 0.659551 -0.293334
-0.340786 0.497563 -0.279429
-0.322379 0.588932 -0.265622
-0.316489 0.715034 -0.308167
-0.321654 0.790620 -0.311541
-0.305663 0.351674 -0.238474
-0.291314 0.808569 -0.301395
-0.309489 0.534603 -0.290673
-0.291844 0.758756 -0.291781
-0.335341 0.052298 -0.258703
-0.353778 0.275355 -0.269058
-0.343794 0.794528 -0.332134
-0.318098 0.776881 -0.310210
-0.330818 0.106697 -0.235465
-0.335424 0.803750 -0.310628
-0.311196 0.723931 -0.292693
-0.355904 0.083142 -0.258510
-0.297001 0.911795 -0.338496
-0.309711 0.306300 -0.235668
-0.295570 0.926397 -0.341278
-0.334476 0.634877 -0.295802
-0.293161 0.574835 -0.260936
-0.288345 0.782826 -0.291511
-0.324937 0.899051 -0.338614
-0.308281 0.407381 -0.244167
-0.323567 0.044867 -0.269746
-0.298052 0.808392 -0.303550
-0.340220 0.729901 -0.306474
-0.351374 0.134064 -0.256103
-0.333020 0.392395 -0.259158
-0.310956 0.110530 -0.238590
-0.343415 0.825537 -0.311626
-0.318977 0.919272 -0.326902
-0.321520 0.774313 -0.308076
-0.310465 0.805979 -0.327875
-0.332783 0.859699 -0.327415
-0.339878 0.071782 -0.253865
-0.312771 0.932601 -0.341761
-0.309655 0.924787 -0.342389
-0.353180 0.435678 -0.273221
-0.323032 0.664809 -0.287575
-0.312925 0.102511 -0.245617
-0.330615 0.185514 -0.225754
-0.313160 0.307576 -0.273831
-0.304241 0.932163 -0.355034
-0.297305 0.902150 -0.334657
-0.307903 0.849715 -0.300158
-0.321367 0.068296 -0.257638
-0.346822 0.054365 -0.268277
-0.329180 0.083539 -0.251219
-0.298020 0.906770 -0.337971
-0.304458 0.909370 -0.346546
-0.311290 0.094007 -0.251335
-0.335291 0.146577 -0.263160
-0.318641 0.354326 -0.240738
-0.340169 0.325317 -0.259859
-0.308772 0.601714 -0.270841
-0.322458 0.770430 -0.325404
